# .PCD v0.7 - Point Cloud Data file format
VERSION 0.7
FIELDS x y z normal_x normal_y normal_z
SIZE 4 4 4 4 4 4
TYPE F F F F F F
COUNT 1 1 1 1 1 1
WIDTH 785
HEIGHT 1
VIEWPOINT 0 0 0 1 0 0 0
POINTS 785
DATA ascii
-75.494499 -68.182098 -1.4206001 -0.072099999 -0.6728 -0.73629999
42.894001 -71.485802 -9.3899002 0.1221 0.94279999 0.31029999
-75.526497 -67.356102 0.50239998 -0.1295 0.2315 0.96420002
13.5856 -67.241302 55.263699 0.1286 0.99110001 0.0352
164.058 -117.5486 2.6829 -0.23549999 -0.49739999 0.83499998
164.7655 -116.2142 2.6884 0.27160001 0.472 0.8387
155.151 -113.3167 0.7597 -0.35800001 -0.70050001 -0.61729997
163.96111 -117.6922 0.50999999 -0.30509999 -0.60159999 -0.73820001
-77.5783 -68.164299 0.02 -0.089199997 -0.792 0.60390002
-79.475304 -67.903999 0.0275 -0.078299999 -0.092900001 0.99260002
-79.490898 -67.619301 0.0297 -0.095799997 0.071099997 0.99290001
-77.634003 -67.108002 0.027799999 -0.1177 0.86860001 0.4813
164.8372 -116.0398 0.51679999 0.3231 0.59850001 -0.7331
53.904598 -77.103798 5.5743999 -0.055599999 -0.078299999 0.99540001
53.956402 -76.881699 5.5755 0.022500001 0.2414 0.9702
-24.798401 -63.0765 48.992001 0.16590001 -0.96640003 0.1961
101.1276 -88.376999 5.0977001 -0.070699997 -0.2385 0.96859998
-71.463097 -66.241302 -0.2112 -0.109 0.98159999 -0.15700001
92.2659 -84.148903 3.1682999 0.22750001 0.8527 -0.47029999
155.4854 -112.6426 0.27200001 -0.1157 -0.212 -0.97039998
155.78999 -112.037 0.2744 0.105 0.22669999 -0.96829998
-33.4188 -61.3549 44.892101 0.1831 0.96490002 -0.1884
119.2413 -96.4841 2.6882 -0.3748 -0.7942 -0.47830001
15.0114 -72.007698 3.4049001 -0.1045 -0.8757 0.47139999
171.38 -119.5422 1.9634 0.70179999 0.55629998 0.44499999
-4.5033998 -69.771797 1.4748 -0.041700002 -0.87540001 -0.48159999
119.4971 -95.885101 4.6132002 -0.1201 -0.38789999 0.9138
-84.078499 -68.680397 -0.45840001 -0.092399999 -0.094400004 0.99119997
-84.097397 -68.384804 -0.4562 -0.1954 0.37709999 0.90530002
119.9085 -94.855003 4.6181002 0.2023 0.34709999 0.91579998
-81.205101 -67.532799 -0.45539999 -0.221 0.92409998 -0.3116
-18.4387 -58.863701 -47.259201 -0.087099999 -0.9795 -0.18170001
-63.5056 -65.840103 -0.45609999 -0.039999999 0.99919999 0.0068000001
-33.845501 -65.789299 1.4713 0.0352 0.9993 0.0082
-97.997498 -72.790703 -0.69749999 0.1706 -0.77100003 0.61360002
-96.551201 -72.269501 -0.69739997 0.053599998 -0.085600004 0.99489999
-96.5616 -72.156998 -0.6965 -0.1108 0.38510001 0.91619998
-86.319603 -69.120796 -0.69770002 0.0152 -0.55379999 0.83249998
-86.330299 -68.971901 -0.69660002 -0.25929999 0.75080001 0.60750002
-63.430599 -68.505096 -0.69660002 0.0352 -0.98439997 -0.1723
138.4048 -102.5273 2.2084999 0.42899999 0.88770002 0.1673
101.5972 -87.0252 4.6142001 0.25189999 0.74540001 0.6171
-24.118299 -68.818398 1.2349 -0.0087000001 -0.87660003 -0.48109999
-33.942501 -68.453697 1.2318 -0.0513 -0.99870002 -0.0065000001
120.0482 -94.499802 4.3710999 0.30469999 0.60299999 0.73729998
-75.573601 -66.562599 -0.69499999 -0.1119 0.99370003 0.0074
128.29849 -100.7037 2.2045 -0.41749999 -0.84740001 -0.32800001
-24.069401 -68.173401 3.1614001 -0.057300001 -0.4048 0.91259998
107.0524 -82.818703 16.4368 0.18269999 0.95520002 -0.233
-24.005699 -67.066002 3.1688001 0.0151 0.5413 0.84069997
-94.261902 -71.481003 -0.93779999 0.26750001 -0.83859998 -0.47459999
-94.2724 -71.3657 -0.93690002 -0.2445 0.65249997 -0.7173
72.650299 -82.064003 4.6114001 0.052200001 0.18430001 0.98150003
-92.600998 -70.948097 -0.93980002 0.234 -0.75489998 -0.61269999
137.2778 -105.0265 1.9699 -0.42809999 -0.90369999 -0.0049999999
-92.618103 -70.7584 -0.93830001 -0.2766 0.75520003 -0.59429997
34.869999 -72.612701 2.9219999 0.15880001 0.93409997 -0.31979999
72.684898 -79.521698 16.4363 0.44490001 -0.078500003 -0.89209998
-88.380997 -69.5131 -0.93349999 -0.1631 0.22390001 0.96090001
-88.386497 -69.443001 -0.93290001 -0.1389 0.065399997 0.98809999
-30.524599 -63.359001 -12.5124 -0.3249 -0.93229997 -0.15899999
-85.244797 -68.947998 -0.93709999 0.15260001 -0.528 -0.83539999
-85.264999 -68.649597 -0.93480003 -0.069700003 0.5492 -0.83279997
-84.083603 -68.637802 -0.93290001 0.074699998 -0.2331 -0.96960002
-84.097603 -68.4207 -0.93120003 0.0094999997 -0.073799998 -0.99720001
-82.723396 -68.264297 -0.93199998 -0.022600001 0.0898 -0.9957
-82.726799 -68.208099 -0.93159997 0.040800001 -0.0722 -0.99659997
-81.172798 -68.140297 -0.93620002 -0.0199 -0.2387 -0.9709
169.8275 -118.3682 1.4876 0.5183 0.85519999 0.0031000001
-81.1931 -67.786697 -0.93360001 -0.092200004 -0.078599997 -0.99260002
-4.3631001 -68.347 0.99339998 0.034899998 0.24969999 -0.9677
91.849701 -85.406601 2.4426 -0.0276 -0.071500003 -0.9971
69.5215 -75.138397 45.866299 -0.13150001 -0.99059999 0.037999999
91.920403 -85.189796 2.4439001 0.015699999 0.088100001 -0.99599999
-23.9853 -66.684303 2.9226999 0.030999999 0.78439999 0.61949998
-90.483101 -70.195801 -1.1719 -0.0561 -0.24330001 -0.96829998
-90.484596 -70.177696 -1.1779 0.044300001 -0.39309999 -0.91839999
-90.489601 -70.121002 -1.1775 -0.24600001 0.37959999 -0.89179999
-90.491203 -70.102997 -1.1712 -0.16769999 0.2369 -0.9569
-89.096298 -69.82 -1.173 0.2947 -0.89780003 -0.32730001
-88.377502 -69.573097 -1.1783 0.2033 -0.51749998 -0.8312
-89.1175 -69.562897 -1.171 -0.3256 0.8933 -0.3098
-88.392899 -69.379601 -1.1768 0.0221 0.25529999 -0.9666
73.640404 -74.316498 43.6992 0.092399999 0.99559999 -0.0136
69.936699 -69.306999 -44.358799 0.18269999 0.98030001 -0.075599998
-71.376999 -68.052101 0.75279999 -0.036800001 -0.55449998 0.83139998
-75.565697 -66.768097 -1.1736 -0.14929999 0.78280002 -0.60399997
5.5767002 -68.108704 2.6801 0.13429999 0.87220001 -0.47029999
-15.2091 -65.6791 30.181999 -0.1151 -0.99250001 0.041499998
-43.730701 -65.543503 0.75709999 0.0116 0.99989998 0.0071999999
34.463001 -74.8255 4.3733001 -0.1296 -0.67000002 0.73100001
110.9801 -90.196602 3.895 0.366 0.91509998 0.1693
25.135099 -71.079201 2.444 0.1602 0.97409999 -0.1595
-71.362297 -68.4086 0.51590002 -0.0241 -0.7942 0.60720003
-43.770302 -68.209396 0.51730001 0.0011 -0.98519999 -0.1715
-75.553902 -67.023102 -1.4121 -0.1398 0.5442 -0.8272
146.22639 -109.1907 1.2402 -0.4156 -0.84799999 -0.32879999
110.0165 -92.763199 3.655 -0.3687 -0.92949998 -0.0043000001
-14.1032 -66.865601 2.4447 0.037799999 0.87580001 0.48109999
33.519199 -68.642899 -9.3793001 0.1978 0.92720002 0.31819999
34.483799 -74.633102 2.2021 -0.0669 -0.67079997 -0.73860002
22.9545 -73.022598 15.9533 -0.1256 -0.9788 0.16150001
75.759102 -81.340401 1.9669 0.1935 0.96990001 0.1479
44.580898 -74.0933 4.1331 0.1619 0.97399998 -0.1587
169.2039 -119.5362 2.6981001 0.0176 -0.1071 0.99409997
15.1728 -70.923798 4.1307998 -0.0307 -0.084299996 0.99599999
15.2054 -70.698097 4.1321001 0.024800001 0.23899999 0.97070003
-14.3148 -69.523697 2.2059 -0.0548 -0.99849999 -0.0074
44.013401 -76.775101 3.8900001 -0.16590001 -0.93300003 0.31940001
24.775499 -73.3004 3.895 -0.1434 -0.78030002 0.60869998
-68.966202 -61.7313 -17.3349 0.003 0.97170001 0.2362
171.1337 -119.9657 0.52020001 0.4844 0.17120001 -0.85790002
84.037598 -78.648697 31.1513 -0.13 -0.98659998 0.098499998
156.1302 -111.3698 0.76779997 0.35120001 0.70959997 -0.61089998
34.402699 -65.249199 -54.720299 -0.1256 -0.9738 -0.18970001
24.792601 -73.107399 1.7239 -0.090599999 -0.78079998 -0.6182
33.1991 -73.052696 1.72 0.1454 0.98119998 0.127
155.1608 -113.3287 2.4561 -0.35100001 -0.70920002 0.61140001
-27.982201 -56.6656 -42.900299 -0.078400001 0.9691 0.23370001
101.3518 -87.737198 5.1011 0.0836 0.2277 0.97009999
-81.161697 -68.266701 -0.20900001 0.033300001 -0.79189998 0.60979998
-81.1959 -67.670601 -0.20460001 -0.17990001 0.92690003 0.32929999
15.0946 -71.341103 1.4869 -0.022500001 -0.39500001 -0.91839999
-71.349098 -68.821098 -0.44440001 0.017200001 -0.94809997 0.31740001
-79.454399 -68.330399 -0.44310001 0.00039999999 -1 -0.0068999999
120.1421 -94.228699 2.6991 0.33270001 0.81699997 -0.4709
53.703999 -77.886398 3.1773 -0.075099997 -0.67070001 -0.73799998
163.7959 -118.0302 1.9732 -0.4233 -0.84719998 0.3211
-4.2849998 -67.6035 1.4888 0.056899998 0.79089999 -0.60930002
-98.517998 -72.819504 -0.68769997 -0.3387 0.94080001 0.0099999998
-98.011398 -72.641098 -0.6839 -0.1838 0.93159997 -0.3136
4.4330001 -67.554901 -10.3393 -0.0014 -0.94270003 -0.3335
-96.552597 -72.254601 -0.68910003 0.20190001 -0.5309 0.82300001
-96.554001 -72.238602 -0.68349999 -0.057 0.2335 0.97070003
-96.555496 -72.221901 -0.68049997 0.107 -0.24349999 0.96399999
-96.557098 -72.204903 -0.68040001 -0.1611 0.5244 0.83609998
-96.558701 -72.188103 -0.68309999 -0.0017 0.075099997 0.99720001
-96.560204 -72.171997 -0.68849999 -0.2462 0.7525 0.61080003
-86.321602 -69.091904 -0.6875 -0.16769999 0.2242 0.95999998
-86.323799 -69.061699 -0.68220001 -0.060699999 -0.2577 0.96429998
-86.325897 -69.031097 -0.68199998 -0.2236 0.51660001 0.8265
-86.328102 -69.0009 -0.6868 -0.13240001 0.064499997 0.98909998
63.4067 -79.027397 2.9302001 -0.1998 -0.91149998 -0.35960001
-84.071899 -68.8013 -0.68599999 0.088299997 -0.87830001 0.47
-77.569603 -68.400299 -0.68489999 -0.082400002 -0.94069999 -0.329
63.5751 -78.370796 2.9337001 0.075099997 0.40149999 -0.91280001
-84.106499 -68.260803 -0.68199998 -0.2465 0.9691 0.0088
-4.4937 -69.783798 3.1712 -0.071000002 -0.67799997 0.73159999
53.7892 -77.514099 2.9307001 -0.024 -0.3994 -0.91649997
54.0415 -76.433899 2.9370999 0.0605 0.24420001 -0.96780002
-33.848801 -65.843498 1.2498 0.0425 0.98680001 -0.1564
54.202499 -75.805199 4.8627 0.1532 0.9314 0.3301
129.3192 -98.2995 2.2156999 0.37799999 0.86849999 -0.32049999
-94.260597 -71.494797 -0.92720002 0.15790001 -0.5255 -0.83600003
-94.273598 -71.352097 -0.92610002 -0.119 0.2422 -0.96289998
-92.600197 -70.955399 -0.9235 0.3159 -0.9339 -0.1675
-92.618599 -70.751404 -0.92189997 -0.3258 0.93339998 -0.1504
-91.398201 -70.556801 -0.92720002 0.31020001 -0.95060003 -0.0059000002
-91.417702 -70.337799 -0.92549998 -0.31900001 0.89679998 -0.3066
-88.382797 -69.489899 -0.92940003 -0.054299999 -0.25549999 0.96530002
-88.384598 -69.466301 -0.92919999 -0.21160001 0.51770002 0.829
-87.401703 -69.418198 -0.92119998 0.15629999 -0.86970001 0.46810001
-86.313599 -69.220001 -0.92900002 0.17309999 -0.97250003 0.1561
-86.338799 -68.8694 -0.92640001 -0.2212 0.96289998 -0.15449999
-82.720001 -68.319801 -0.92309999 0.1053 -0.38730001 -0.91589999
-77.575401 -68.3153 -0.92739999 -0.088299997 -0.78320003 -0.61540002
-82.730103 -68.152802 -0.92189997 -0.088500001 0.40419999 -0.91039997
34.4016 -75.087898 2.6982 -0.123 -0.86760002 -0.48190001
-15.8574 -72.840202 0.7651 -0.1362 -0.97420001 0.1797
34.534901 -74.4533 4.6241999 -0.092 -0.3978 0.91280001
-90.481499 -70.212601 -1.1629 0.14839999 -0.65880001 -0.73760003
-90.492599 -70.086304 -1.1619 -0.3048 0.63889998 -0.70630002
-89.740303 -70.036003 -1.1639 0.2309 -0.85650003 0.46169999
-89.761002 -69.792801 -1.1621 -0.3193 0.94760001 0.0055999998
-88.376099 -69.589203 -1.161 0.1997 -0.9648 -0.17120001
119.6453 -95.457199 1.9741 -0.077500001 -0.0524 -0.99559999
119.7299 -95.245399 1.9752001 -0.0111 0.098899998 -0.995
63.155701 -80.046097 4.3878002 -0.18979999 -0.87559998 0.44409999
69.7435 -70.521698 -44.347099 -0.17569999 -0.98369998 0.037300002
-33.920799 -68.093697 2.6989 -0.057 -0.7906 0.60960001
-71.423599 -67.008003 0.7604 -0.0535 0.67070001 0.73979998
-44.380798 -64.172302 14.5138 -0.1295 -0.98659998 0.099600002
82.884003 -81.663696 4.1483998 0.2349 0.95709997 0.16940001
34.8097 -72.987602 4.3843002 0.090899996 0.7809 0.61799997
-46.7267 -63.375198 -12.9832 0.64300001 -0.0023000001 -0.76590002
-63.450401 -67.9496 -1.4003 0.0436 -0.67040002 -0.74070001
-33.9268 -67.8983 0.52789998 -0.0309 -0.7845 -0.61940002
-24.059299 -67.714699 0.52319998 0.044100001 -0.076800004 -0.99610001
-75.508598 -67.704002 0.52859998 -0.1168 -0.094099998 0.98869997
-75.517502 -67.528999 0.5298 -0.1152 0.23119999 0.96609998
-24.0462 -67.487099 0.52490002 0.0112 -0.076399997 -0.99699998
5.5731001 -68.1259 2.4526999 0.1069 0.99419999 0.0071
128.5097 -100.1917 1.4992 -0.28099999 -0.46939999 -0.83710003
-71.440903 -66.648201 0.52880001 -0.051800001 0.87480003 0.4817
147.34959 -106.8326 1.2505 0.4059 0.8556 -0.3213
24.7201 -73.563904 2.2198999 -0.1045 -0.77810001 -0.61930001
34.763802 -73.148903 2.211 0.1121 0.54030001 -0.83399999
110.9854 -90.1772 3.6677999 0.3682 0.92970002 0.0049999999
24.839399 -72.926804 4.1459999 -0.1123 -0.5413 0.83329999
155.5009 -112.6616 2.9493999 -0.1045 -0.22579999 0.96859998
5.2473998 -70.772202 2.2146001 -0.14650001 -0.9892 -0.0063
73.387001 -79.420998 3.9001 0.2133 0.96399999 -0.1585
24.4811 -64.389198 -25.049601 -0.1292 -0.99150002 -0.015699999
110.0218 -92.744102 3.4277 -0.36790001 -0.91439998 -0.1691
44.5835 -74.073097 3.9059 0.1578 0.86870003 -0.46959999
3.8429999 -67.196198 55.0438 -0.13420001 -0.98180002 -0.13429999
53.499001 -67.985001 -50.8517 -0.1267 -0.9745 -0.1851
63.223099 -79.758003 3.6658001 -0.17560001 -0.8707 -0.4594
15.0799 -71.556801 3.9066 -0.069399998 -0.40110001 0.91339999
25.0826 -71.455498 3.9063001 0.1121 0.86979997 0.4806
-14.3176 -69.540703 1.9785 -0.0744 -0.94499999 0.31850001
-79.4804 -67.8097 0.044100001 -0.065099999 -0.2543 0.96490002
-79.485703 -67.713898 0.0447 -0.1258 0.2308 0.9648
-75.889099 -67.203003 0.048099998 0.001 0.99589998 0.090999998
44.0159 -76.755203 3.6628001 -0.1349 -0.93449998 -0.32929999
146.3943 -108.8664 2.7061999 -0.28330001 -0.61860001 0.73280001
15.0417 -71.719498 1.7332 -0.0559 -0.67009997 -0.74019998
25.0406 -71.6175 1.7329 0.1294 0.66900003 -0.73189998
156.13989 -111.3819 2.4644001 0.35820001 0.70090002 0.61680001
-75.465797 -68.613503 -0.191 -0.088500001 -0.88059998 0.46540001
61.445499 -75.6968 30.927401 0.7913 0.24089999 -0.56199998
63.764301 -77.647003 3.4284 0.1507 0.77939999 -0.6081
146.4592 -108.6884 0.53469998 -0.2499 -0.48269999 -0.83939999
-4.4155998 -69.040497 3.6666 -0.040399998 -0.084700003 0.99559999
53.7575 -77.726501 5.3505001 -0.085699998 -0.39719999 0.91369998
54.101002 -76.255699 5.3590999 0.050500002 0.542 0.83890003
15.2532 -70.243202 1.4938999 0.0473 0.24789999 -0.96759999
63.232899 -79.770103 5.1129999 -0.1058 -0.54210001 0.83359998
-84.080902 -68.641403 -0.4368 0.015799999 -0.55299997 0.833
-82.704102 -68.539001 -0.4321 0.1089 -0.94190001 0.3179
-84.094704 -68.424202 -0.43520001 -0.2369 0.7568 0.6092
15.3585 -69.603996 3.4200001 0.1348 0.93419999 0.33019999
-79.517097 -67.186302 -0.4346 -0.21950001 0.9605 0.17129999
54.129398 -76.065102 3.1879001 0.1088 0.54170001 -0.83350003
165.01939 -115.7225 1.9826 0.45339999 0.82880002 0.32780001
-98.506104 -72.946297 -0.67809999 0.23029999 -0.64969999 0.7245
-97.9991 -72.772697 -0.67390001 0.097400002 -0.54009998 0.83590001
-99.400497 -71.902397 -0.67320001 -0.119 0.98979998 0.078699999
-81.157501 -68.381599 -0.67739999 9.9999997e-05 -0.98750001 0.1577
-81.205299 -67.549103 -0.67119998 -0.21430001 0.96469998 -0.1533
-77.650703 -66.862 -0.6735 -0.15790001 0.9874 0.0074
-63.505299 -65.894302 -0.67760003 -0.0557 0.9465 -0.31779999
-4.2751999 -67.615601 3.1854 0.0298 0.78500003 0.61879998
-23.978901 -66.3937 1.2513 0.049899999 0.792 -0.6085
-94.259399 -71.506599 -0.91439998 0.31130001 -0.93529999 -0.168
-94.274597 -71.340401 -0.91320002 -0.30129999 0.83719999 -0.45649999
-87.424698 -69.114899 -0.91900003 -0.245 0.84509999 0.47510001
-85.242897 -68.972801 -0.91039997 0.20119999 -0.8549 -0.47819999
-84.081001 -68.6772 -0.91189998 0.13699999 -0.86589998 -0.48100001
138.4113 -102.5083 1.9813 0.42789999 0.90380001 0.0029
53.628201 -78.257797 4.6396999 -0.1575 -0.86799997 0.4709
-77.647797 -66.943604 -0.91720003 -0.094499998 0.67739999 -0.7295
137.2841 -105.0078 1.7427 -0.42910001 -0.8872 -0.16940001
34.740601 -73.363197 4.6307001 0.041700002 0.54269999 0.83890003
-90.480202 -70.227699 -1.1513 0.055500001 -0.53820002 -0.84100002
-90.493797 -70.071404 -1.1501 -0.24969999 0.52359998 -0.81459999
-89.096001 -69.821899 -1.1514 0.31060001 -0.93889999 0.1485
-46.228802 -61.262699 30.446699 -0.1267 -0.97570002 -0.1786
-88.393997 -69.363701 -1.1593 -0.19059999 0.86510003 -0.46399999
62.238098 -72.6008 -9.1132002 0.19499999 0.9156 0.35170001
91.512398 -86.457802 4.1532001 -0.2626 -0.8369 -0.48030001
-53.613201 -67.241203 -1.1526999 0.057500001 -0.54030001 -0.83950001
-63.432701 -68.144997 0.77060002 -0.030400001 -0.68360001 0.72920001
128.4518 -100.3729 3.6705999 -0.2396 -0.6372 0.73250002
23.1597 -68.503899 55.531101 0.1184 0.98879999 -0.090599999
129.18269 -98.651299 3.6784999 0.32949999 0.59119999 0.73619998
-71.373299 -68.394997 -1.3985 0.0023000001 -0.54149997 -0.84069997
-33.872601 -66.388901 0.53820002 0.058499999 0.68120003 -0.72970003
129.0999 -98.801399 1.5056 0.1788 0.52219999 -0.83380002
-43.7327 -65.597801 0.53560001 0.0054000001 0.9479 -0.31850001
155.8055 -112.056 2.9521 0.1161 0.2129 0.97009999
25.021601 -71.832603 4.1525998 0.067199998 0.67089999 0.7385
-71.390602 -68.035103 -1.6301 -0.0038999999 -0.2392 -0.97100002
91.597 -86.189796 3.6712 -0.26429999 -0.87660003 -0.4021
146.5593 -108.5246 2.9563 -0.1608 -0.3723 0.91409999
-14.1001 -66.808296 2.2239001 0.053100001 0.98610002 -0.1575
34.601398 -74.001503 1.9857 0.018300001 -0.080600001 -0.99659997
34.6437 -73.777397 1.9871 0.038699999 -0.085199997 -0.99559999
170.82249 -120.5672 2.4704001 0.2102 -0.37540001 0.90270001
61.538101 -79.234703 1.7410001 0.44310001 -0.092699997 -0.89170003
73.370697 -79.473198 3.6786001 0.2018 0.92619997 -0.31850001
15.2958 -70.061897 3.9159999 0.040100001 0.5413 0.83990002
63.4221 -79.046402 5.6076002 0.034600001 0.071199998 0.99690002
34.567101 -64.030403 -54.702301 0.2093 0.96240002 0.17290001
-43.756599 -67.849197 1.9844 -0.0348 -0.68229997 0.73030001
147.1985 -107.1778 2.7133999 0.3053 0.60210001 0.7378
44.578201 -74.090103 3.6784999 0.1577 0.98750001 0.0066999998
169.3812 -119.1678 0.30250001 0.15970001 0.1963 -0.96749997
171.28081 -119.7276 2.2316999 0.61440003 0.38769999 0.68720001
15.309 -69.868401 1.7449 0.089900002 0.54530001 -0.83340001
42.228401 -77.443199 1.5087 -0.1268 -0.98110002 -0.14579999
169.709 -118.5993 2.2356 0.42309999 0.66479999 0.61570001
-77.571098 -68.320503 -0.184 -0.082900003 -0.94529998 0.31549999
-79.459198 -68.217903 -0.1811 0.0145 -0.68150002 0.7317
-43.766499 -67.653702 -0.1866 0.048300002 -0.67140001 -0.73949999
-4.3477001 -68.365997 3.6710999 -0.0080000004 0.2404 0.97060001
147.1087 -107.3248 0.54049999 0.2251 0.50230002 -0.83490002
-14.0241 -60.789902 -25.511999 -0.1279 -0.98989999 -0.061799999
24.896601 -72.473396 1.5075001 0.044199999 0.0823 -0.99559999
24.934099 -72.248497 1.5089999 0.012 -0.2457 -0.96929997
100.9169 -88.922997 2.9581001 -0.27469999 -0.741 -0.61269999
-84.083504 -68.599197 -0.42199999 -0.1532 0.22759999 0.96160001
-84.091904 -68.466599 -0.421 -0.1327 0.066399999 0.98890001
-77.5681 -68.4021 -0.4278 -0.080600001 -0.99669999 -0.0071
-82.740303 -67.940697 -0.42770001 -0.27079999 0.90600002 0.32530001
4.6687002 -68.250801 1.5084 0.046500001 0.99580002 0.078400001
63.773998 -77.659103 5.125 0.1329 0.66060001 0.73890001
-71.465103 -66.221901 -0.42519999 -0.0198 0.88260001 -0.4698
-98.507797 -72.928001 -0.6609 0.1463 -0.3897 0.90920001
-98.516403 -72.834999 -0.66799998 -0.25330001 0.74540001 0.61659998
-98.009201 -72.662903 -0.66390002 -0.2929 0.59500003 0.74849999
14.9971 -72.096802 3.1954 -0.1344 -0.87199998 0.47060001
-85.240097 -68.9944 -0.66979998 0.1516 -0.93650001 0.3161
-85.266502 -68.607002 -0.66689998 -0.25400001 0.91009998 0.32730001
-53.605099 -67.9953 -0.66750002 0.0138 -0.94340003 -0.33129999
163.7684 -118.0781 1.7519 -0.44319999 -0.88190001 0.1609
79.098396 -70.305397 -24.3069 0.19329999 0.88590002 0.42160001
-92.599701 -70.9599 -0.90619999 0.29350001 -0.89920002 -0.32449999
-92.618896 -70.747101 -0.90450001 -0.3179 0.89679998 -0.30779999
-91.398499 -70.552399 -0.90930003 0.2931 -0.64099997 0.70929998
95.8787 -79.559097 16.462099 0.1409 0.98220003 -0.1241
-91.417198 -70.342499 -0.9077 -0.2393 0.8448 0.4786
-85.266502 -68.625198 -0.90780002 -0.19769999 0.8635 -0.46399999
-63.434399 -68.412201 -0.9048 0.0041 -0.87629998 -0.48179999
-84.099899 -68.381599 -0.90969998 -0.1441 0.67199999 -0.72640002
-82.716698 -68.3731 -0.90530002 0.039700001 -0.23549999 -0.97109997
-81.1689 -68.204399 -0.90200001 -0.0139 -0.87620002 -0.48179999
-82.7332 -68.0998 -0.90319997 -0.033500001 0.2516 -0.9673
91.780098 -85.620697 2.4791 -0.1229 -0.41429999 -0.90179998
-33.940498 -68.360802 1.0235 0.0011 -0.78549999 -0.6189
-53.595299 -68.007401 1.0289 -0.070200004 -0.55019999 0.83209997
-63.4422 -67.766403 1.0221 -0.043099999 -0.41029999 0.9109
128.3331 -100.618 1.9960001 -0.39879999 -0.7823 -0.47850001
-33.905701 -67.715103 2.9502001 -0.058800001 -0.54949999 0.83340001
128.60201 -100.0244 3.9209001 -0.1124 -0.39230001 0.91289997
-33.865898 -66.606598 2.9577 0.023399999 0.67199999 0.74019998
129.0354 -99.003304 3.9256001 0.22490001 0.33610001 0.91460001
53.382599 -66.947098 -24.5432 0.0252 0.98890001 0.14669999
34.851799 -72.701302 2.7126 0.15440001 0.77759999 -0.60960001
168.6693 -120.4939 1.2785 -0.41150001 -0.89579999 -0.1683
-89.740303 -70.0345 -1.1438 0.30559999 -0.95209998 -0.0114
-89.760696 -69.794601 -1.142 -0.33329999 0.8919 -0.3057
-88.374901 -69.602203 -1.1413 0.241 -0.75340003 -0.61180001
-89.117599 -69.561203 -1.1495 -0.2227 0.76779997 -0.60070002
138.40221 -102.524 1.7539001 0.41499999 0.89529997 -0.16159999
91.471703 -86.604401 4.1647 0.0647 0.1742 0.98259997
-53.618 -66.5634 -1.1479 0.049800001 0.40830001 -0.91149998
-63.486301 -66.275497 0.7841 -0.053300001 0.7834 0.61919999
-33.853699 -66.224602 2.7117 0.037799999 0.87540001 0.48199999
103.6705 -89.030403 1.9910001 0.41460001 0.8987 0.14300001
73.300598 -69.857803 -42.6399 0.13940001 0.98439997 0.1074
-71.452003 -66.634598 -1.3855 0.0117 0.40880001 -0.91250002
-63.493599 -66.439796 -1.3894 -0.031399999 0.55190003 -0.83329999
82.888199 -81.643898 3.9212 0.2358 0.97180003 0.0052
25.118799 -71.168198 2.2347 0.1433 0.66649997 -0.73159999
-43.770199 -68.116402 0.30899999 0.043000001 -0.87449998 -0.48300001
-71.437302 -66.991096 -1.6223 0.025599999 0.090800002 -0.99550003
146.2646 -109.1066 1.0316 -0.389 -0.78649998 -0.47979999
5.5650001 -68.179802 2.2312 0.1091 0.98150003 -0.1573
-43.749699 -67.470398 2.2356999 -0.050099999 -0.4077 0.91170001
32.7458 -69.720596 55.061401 0.138 0.9903 -0.0137
147.0363 -107.5231 2.9605999 0.1883 0.35179999 0.91689998
110.9774 -90.193398 3.4403999 0.3603 0.91909999 -0.1594
53.674301 -66.7677 -50.839401 0.064199999 0.98269999 0.17399999
63.590401 -78.389801 5.6114001 0.0189 0.075599998 0.99699998
110.0402 -92.690002 3.2068999 -0.35769999 -0.8739 -0.32929999
-14.0999 -66.787804 1.9967999 0.075300001 0.87959999 -0.4698
-43.729698 -65.979103 1.9974 -0.0374 0.78460002 0.6189
101.2022 -88.165001 5.1364999 -0.019300001 -0.083899997 0.99629998
101.2776 -87.949799 5.1374002 0.032499999 0.072899997 0.99680001
-14.3174 -69.520401 1.7513 -0.044599999 -0.94239998 -0.33149999
5.3009 -70.414703 3.6815 -0.097900003 -0.78609997 0.61019999
33.177101 -71.311203 -10.0603 -0.1017 -0.8786 -0.4666
-79.509399 -67.302498 -0.1743 -0.15270001 0.66030002 0.7353
-77.643501 -66.948898 -0.17389999 -0.1144 0.97850001 0.1716
44.026199 -76.698799 3.4419999 -0.1679 -0.98580003 -0.0057999999
-75.568398 -66.6092 -0.1762 -0.1561 0.93120003 0.3294
-43.744801 -66.143501 -0.1761 0.0427 0.55269998 -0.83230001
-23.1187 -57.156898 -45.041 0.29890001 -0.033199999 -0.95370001
72.7761 -81.642197 5.1313 -0.1284 -0.6692 0.73189998
5.3102999 -70.220596 1.5104001 -0.1084 -0.77749997 -0.61940002
-84.086197 -68.555298 -0.41429999 -0.059599999 -0.2559 0.96490002
-84.089104 -68.510597 -0.414 -0.20299999 0.52139997 0.82880002
5.494 -68.721397 1.5199 0.088699996 0.67729998 -0.73030001
146.7336 -108.108 0.31690001 -0.050500002 -0.062700003 -0.99680001
-77.6493 -66.8638 -0.41639999 -0.31200001 0.89099997 0.32969999
146.8317 -107.9021 0.3179 0.021199999 0.086000003 -0.99610001
87.3909 -69.6082 -24.057501 0.32659999 0.9393 0.1052
-98.509804 -72.905197 -0.65069997 0.0438 -0.085100003 0.99540001
-98.514397 -72.856003 -0.65439999 -0.1683 0.5176 0.83890003
-98.001297 -72.7481 -0.65750003 0.0044 -0.259 0.9659
-98.006699 -72.690002 -0.65219998 -0.2008 0.33790001 0.91949999
100.9757 -88.752098 2.7255001 -0.25639999 -0.704 -0.66229999
73.218498 -79.998703 2.9679999 0.1061 0.54299998 -0.833
-71.351097 -68.802002 -0.6584 0.0027000001 -0.9436 -0.33109999
-82.703201 -68.573799 -0.65069997 0.14210001 -0.93300003 -0.33050001
-13.6092 -59.353298 -49.383099 -0.1233 -0.98970002 -0.072899997
-53.620499 -65.8162 -0.65200001 0.0156 0.88260001 -0.47
165.0443 -115.6716 1.7616 0.47150001 0.86570001 0.168
82.088097 -84.286903 4.6546998 0.2353 0.97189999 -0.0044999998
-94.2584 -71.516296 -0.89990002 0.2418 -0.7525 -0.61260003
-94.275398 -71.330902 -0.89840001 -0.2121 0.5298 -0.82120001
-91.399002 -70.545197 -0.89240003 0.31990001 -0.89590001 0.30840001
-91.416397 -70.349899 -0.89090002 -0.2872 0.94279999 0.1691
100.8343 -89.198402 4.4120998 -0.27320001 -0.838 0.47229999
13.536 -69.435898 30.460199 -0.051800001 -0.99180001 0.1171
-87.402298 -69.407799 -0.89679998 0.1451 -0.93739998 0.31670001
-86.312897 -69.227699 -0.89929998 0.20200001 -0.92250001 -0.329
-87.423798 -69.125801 -0.89469999 -0.28259999 0.90259999 0.3247
-86.339203 -68.862099 -0.89649999 -0.23800001 0.97119999 0.0082
-79.463303 -68.212799 -0.89469999 0.066200003 -0.87349999 -0.4822
163.7583 -118.0931 1.5245 -0.45030001 -0.89289999 -0.0038000001
-81.196602 -67.723 -0.89850003 -0.1603 0.67110002 -0.7238
91.990402 -84.976196 2.4823999 0.058499999 0.24529999 -0.9677
-63.4739 -66.6576 1.03 -0.052299999 0.53960001 0.84030002
54.222198 -75.714401 4.6543999 0.13519999 0.93409997 0.33039999
129.2822 -98.382401 2.0065 0.3409 0.81309998 -0.47189999
-90.478897 -70.2407 -1.1373 0.2343 -0.84759998 -0.4761
-90.494797 -70.058601 -1.1359 -0.33199999 0.82789999 -0.45210001
-88.394897 -69.350998 -1.1394 -0.0535 0.55119997 -0.8326
-87.413498 -69.278297 -1.1327 0.058600001 0.094999999 -0.99379998
-87.415497 -69.251801 -1.1325001 0.1035 -0.064599998 -0.99250001
51.6996 -76.779198 16.2325 -0.13150001 -0.96259999 0.2369
53.614101 -78.310898 4.4183002 -0.16249999 -0.9738 0.1591
137.30589 -104.9551 1.5218 -0.41839999 -0.84649998 -0.329
-24.072001 -67.939499 0.55940002 -0.0063999998 -0.39570001 -0.91839999
89.804001 -84.750801 2.0071001 0.1735 0.96939999 -0.1737
13.422 -68.459396 55.311401 0.071400002 -0.96859998 -0.23800001
-63.470001 -67.307198 -1.6159 -0.0082999999 -0.076200001 -0.9971
-63.476501 -67.079201 -1.6141 0.031399999 -0.074100003 -0.99680001
-33.905102 -67.255997 0.31200001 0.049899999 0.088299997 -0.99479997
-33.8969 -67.028099 0.31369999 0.0024000001 -0.2393 -0.9709
128.759 -99.599998 1.2816 -0.095700003 -0.043900002 -0.99440002
128.8481 -99.390099 1.2828 -0.0263 0.1058 -0.99400002
147.3089 -106.9139 1.0413001 0.37490001 0.79750001 -0.47260001
-43.7337 -66.361298 2.2434001 -0.057100002 0.54110003 0.83899999
-33.530201 -60.0756 -25.014799 0.78850001 0.2414 -0.56569999
82.881401 -81.6604 3.6938 0.2304 0.95999998 -0.15899999
170.9861 -120.2695 2.4997001 0.3545 -0.1048 0.92919999
5.2572999 -70.68 2.0063 -0.070600003 -0.78200001 -0.61930001
5.3485999 -70.038803 3.9326 -0.076899998 -0.54570001 0.83450001
5.4835 -68.937698 3.9395001 0.090800002 0.667 0.73949999
110.9566 -90.244102 3.2190001 0.3427 0.88349998 -0.31940001
72.811996 -81.4533 3.4586 -0.18539999 -0.89670002 -0.40200001
-76.086098 -70.560204 -0.1656 0.0255 -0.99589998 -0.086800002
72.879898 -81.277397 5.382 -0.0748 -0.39969999 0.91360003
73.178398 -80.209099 5.3878002 0.1338 0.5262 0.83969998
-81.164703 -68.209702 -0.1639 -0.080300003 -0.092699997 0.99250001
-81.192299 -67.728302 -0.1603 -0.1476 0.38440001 0.9113
42.331799 -70.937302 54.591801 0.1087 0.99400002 -0.0101
5.5283999 -68.558296 3.6933 0.1234 0.86799997 0.48100001
-14.1027 -66.805099 1.7693 0.055 0.99849999 0.0060999999
44.565399 -74.143097 3.457 0.1626 0.97399998 -0.1578
73.279404 -79.840797 5.1410999 0.1831 0.76459998 0.61799997
-43.758499 -67.011101 -0.4023 0.0623 -0.074000001 -0.99529999
-43.755199 -66.783096 -0.40059999 0.0748 -0.075800002 -0.99430001
-53.597801 -67.2603 1.5247999 -0.074699998 0.077100001 0.99419999
92.226196 -84.266098 2.9767001 0.20299999 0.76679999 -0.60890001
-53.602699 -66.582397 1.5297 -0.062399998 0.0757 0.99519998
-98.5121 -72.880302 -0.64840001 -0.065300003 0.2298 0.97100002
-98.003799 -72.719498 -0.64999998 -0.098399997 0.043499999 0.99419999
72.865303 -81.259499 2.9770999 -0.1062 -0.5711 -0.81400001
-30.807899 -64.657204 -12.2246 0.3457 0.92479998 0.15889999
119.2865 -96.366898 2.4979 -0.34470001 -0.70829999 -0.61610001
-84.071899 -68.797897 -0.64139998 0.17299999 -0.9849 -0.0077
-82.743797 -67.902802 -0.64569998 -0.229 0.92210001 -0.31200001
12.8861 -76.596199 1.0412 -0.001 -0.99970001 -0.024499999
15.3704 -69.511703 3.2117 0.093999997 0.93900001 0.33090001
91.559799 -86.3498 4.6623001 -0.2026 -0.76620001 0.60979998
44.111198 -76.346497 4.9087 -0.1508 -0.778 0.6099
-96.555199 -72.237198 -0.88380003 0.197 -0.64929998 -0.73460001
-96.556702 -72.220398 -0.8865 -0.0634 0.0845 -0.99440002
-96.558296 -72.2034 -0.88630003 0.1009 -0.38600001 -0.917
-96.559799 -72.1866 -0.88340002 -0.1665 0.39179999 -0.90490001
-94.257698 -71.523399 -0.88389999 0.32229999 -0.93430001 0.15260001
-94.275902 -71.324097 -0.88239998 -0.32640001 0.93309999 -0.1512
-92.599503 -70.961502 -0.8883 0.3242 -0.9339 0.15099999
72.6679 -81.9888 4.6619 0.078100003 0.17900001 -0.98070002
-92.618896 -70.745796 -0.88669997 -0.2807 0.75459999 -0.59310001
14.9878 -72.150703 2.974 -0.1091 -0.98119998 0.1591
101.4081 -87.515198 2.4986 0.1211 0.38949999 -0.91299999
-85.241402 -68.992996 -0.88010001 0.1892 -0.76550001 -0.61489999
-84.078598 -68.712601 -0.8847 0.13160001 -0.53049999 -0.83740002
-84.102097 -68.346603 -0.88190001 -0.055599999 0.2507 -0.96649998
-4.5072999 -69.9067 2.9795001 -0.058800001 -0.88099998 0.46939999
101.6373 -86.906303 4.4236999 0.27939999 0.8319 0.4795
-24.1122 -68.692398 1.0448 -0.037700001 -0.87550002 -0.4817
-79.513496 -67.297401 -0.88789999 -0.1786 0.86760002 -0.4641
44.135899 -76.1549 2.7375 -0.1135 -0.7784 -0.61750001
-63.503899 -65.984497 -0.88709998 -0.012 0.79339999 -0.6085
165.0519 -115.6532 1.5344 0.47670001 0.87910002 0.0035000001
-33.853298 -65.933701 1.0403 0.046100002 0.68110001 -0.73079997
-53.610802 -65.8283 1.0446 -0.055399999 0.67159998 0.73879999
-90.477898 -70.251198 -1.1214 0.1593 -0.76959997 -0.61839998
-89.740601 -70.029602 -1.1242 0.15360001 -0.6699 0.72640002
-89.096001 -69.820297 -1.1299 0.2933 -0.95599997 -0.0105
-89.760201 -69.799599 -1.1224999 -0.26480001 0.8409 0.47189999
-89.117302 -69.563202 -1.1279 -0.3134 0.93519998 0.1646
119.5621 -95.666298 2.0107 -0.1419 -0.2023 -0.96899998
-87.4095 -69.329597 -1.1201 0.1237 -0.22759999 -0.9659
-87.4114 -69.304497 -1.1285 0.1752 -0.37599999 -0.90990001
-87.417397 -69.2257 -1.1279 -0.0156 0.40880001 -0.91250002
108.9148 -81.2061 -9.3299999 0.29890001 -0.0337 -0.95370001
119.8135 -95.036697 2.0136001 0.0557 0.2476 -0.96719998
-77.5849 -68.156097 -1.1291 -0.097499996 -0.54140002 -0.8351
163.76579 -118.0749 1.2973 -0.44510001 -0.87949997 -0.1683
-77.640701 -67.0998 -1.1213 -0.086999997 0.4034 -0.9109
53.225899 -68.145897 -24.769699 -0.12540001 -0.97369999 -0.19
138.37801 -102.5734 1.5326 0.39089999 0.8624 -0.32170001
73.101501 -71.071198 -42.6143 -0.1269 -0.97719997 -0.17030001
-24.0331 -67.262703 0.56389999 0.054400001 0.25099999 -0.96649998
-25.7272 -65.279297 29.995701 0.1125 0.99349999 -0.0188
155.6021 -112.461 2.9879999 -0.031099999 -0.080399998 0.99629998
155.70461 -112.2572 2.9886999 0.043099999 0.067199998 0.99680001
76.664597 -70.408699 -40.921001 0.1627 0.98540002 -0.050299998
-43.735298 -65.688004 0.32609999 0.0557 0.79220003 -0.60769999
3.7911999 -70.518204 15.7671 -0.1276 -0.98580003 0.1092
137.46651 -104.6275 2.9879 -0.259 -0.63 0.73210001
169.5695 -118.8606 2.5064001 0.31110001 0.44949999 0.83740002
137.52789 -104.4479 0.81639999 -0.2692 -0.4738 -0.83850002
63.260502 -79.6073 3.4676001 -0.1304 -0.73879999 -0.66119999
73.344803 -79.560097 3.4693 0.1848 0.86320001 -0.4698
-4.3927999 -68.817001 3.7056999 -0.0266 -0.087499999 0.99580002
-4.3699999 -68.590103 3.707 -0.0175 0.24259999 0.97000003
91.795502 -85.639702 5.1566 -0.0581 -0.24330001 0.96820003
69.376198 -73.535698 30.9634 0.049199998 0.99809998 -0.038199998
155.10361 -113.4389 2.2648001 -0.3924 -0.78899997 0.47279999
100.989 -88.768501 4.9130998 -0.1664 -0.52420002 0.83520001
-14.3142 -69.462898 1.5306 -0.066500001 -0.99779999 -0.0066999998
-81.155899 -68.383598 -0.39109999 -0.025800001 -0.68279999 0.73019999
95.224503 -72.438698 -24.038099 0.142 0.98949999 -0.0255
110.1787 -92.353302 4.6731 -0.2362 -0.63749999 0.73339999
44.1912 -75.975899 5.1595001 -0.1221 -0.53780001 0.83420002
51.937801 -72.032204 52.191399 0.1212 0.9921 -0.033100002
101.5353 -87.157898 2.7491 0.2087 0.6494 -0.7313
-85.241302 -68.974701 -0.63919997 0.052099999 -0.68110001 0.73030001
-85.264999 -68.627098 -0.63660002 -0.24429999 0.64270002 0.72610003
5.3870001 -69.582603 1.2941999 0.030999999 0.087200001 -0.9957
5.4147 -69.3563 1.2958 -0.024599999 -0.2378 -0.97100002
-79.455498 -68.329102 -0.63440001 -0.0066999998 -0.9436 -0.33109999
-84.106003 -68.264801 -0.63749999 -0.2237 0.92320001 -0.3125
120.0948 -94.343102 2.5074999 0.29030001 0.73760003 -0.60960001
-71.465599 -66.238197 -0.63950002 -0.064900003 0.99790001 0.0074
-29.888 -66.180496 15.0416 -0.12970001 -0.98659998 0.0986
110.2293 -92.169197 2.5018001 -0.22130001 -0.49829999 -0.83829999
92.235901 -84.278099 4.6732001 0.21070001 0.75800002 0.61729997
110.7593 -90.754799 2.5086999 0.18719999 0.5194 -0.83380002
-96.5522 -72.268303 -0.87040001 0.2694 -0.8373 -0.47569999
-96.553703 -72.253304 -0.87840003 0.0471 -0.2344 -0.97100002
-96.561302 -72.170601 -0.87769997 -0.0082 -0.075999998 -0.9971
44.497299 -74.516403 4.9194002 0.139 0.86589998 0.48050001
-92.599503 -70.960098 -0.87050003 0.32100001 -0.94700003 -0.0071
72.983299 -80.834297 2.7432001 -0.0187 -0.074100003 -0.9971
73.044601 -80.6147 2.7444999 -0.034499999 -0.070100002 -0.99690002
-91.399902 -70.535202 -0.87690002 0.234 -0.38150001 0.89429998
-91.415398 -70.3601 -0.87559998 -0.1539 0.65630001 0.73860002
-87.403297 -69.393402 -0.87449998 0.0788 -0.67720002 0.73159999
119.2963 -96.378899 4.1943002 -0.2895 -0.73629999 0.61150002
-87.422501 -69.140404 -0.87260002 -0.22830001 0.64520001 0.72909999
-85.2677 -68.605499 -0.87709999 -0.1411 0.78299999 -0.60579997
-75.469803 -68.608597 -0.88 -0.076300003 -0.98250002 -0.1701
-82.713501 -68.422699 -0.87879997 0.1529 -0.65880001 -0.73659998
-82.736099 -68.050598 -0.8761 -0.1504 0.67199999 -0.72509998
78.940598 -71.506699 -24.5186 -0.1656 -0.986 0.017200001
-23.9872 -66.5168 1.0595 0.056699999 0.7924 -0.6074
44.447701 -74.677002 2.7460999 0.1384 0.66780001 -0.73140001
84.246201 -79.827103 16.257401 -0.39089999 0.1128 -0.91350001
14.9838 -72.167603 2.7465999 -0.1464 -0.97640002 0.1584
-90.495598 -70.048302 -1.1198 -0.30399999 0.74949998 -0.58810002
-88.3741 -69.611801 -1.1197 0.16859999 -0.97320002 0.1567
-88.3955 -69.341698 -1.1176 -0.2464 0.95679998 -0.154
-87.419296 -69.200798 -1.1191 0.017999999 0.2568 -0.96630001
171.4294 -119.4404 1.3003 0.74529999 0.64880002 -0.15360001
-79.487099 -67.801399 -1.1138 -0.1076 0.085199997 -0.99049997
-79.492302 -67.705597 -1.113 -0.043699998 -0.076499999 -0.99610001
-24.1024 -68.704498 2.7412 -0.046100002 -0.68049997 0.7313
165.0417 -115.6684 1.307 0.46959999 0.86809999 -0.161
34.423599 -74.963898 2.5081 -0.1118 -0.86970001 -0.4808
23.000999 -69.722702 55.578999 0.14219999 -0.98509997 -0.096600004
54.233601 -75.658401 4.4335999 0.1485 0.97399998 0.1709
53.608601 -78.327499 4.1908998 -0.1696 -0.97259998 0.15899999
85.418297 -78.138496 -9.5528002 -0.1258 -0.88590002 -0.4465
170.5423 -121.0491 0.8283 -0.037300002 -0.81370002 -0.5801
137.6241 -104.2823 3.2381001 -0.1332 -0.3849 0.91329998
-57.740398 -61.737202 -15.1058 -0.1973 0.97890002 0.0537
-43.331699 -62.713299 -13.1775 -0.098200001 -0.98769999 -0.1216
75.603104 -82.547302 1.7875 0.44510001 -0.080600001 -0.89179999
34.560001 -74.222801 2.0220001 -0.015 -0.3996 -0.91659999
34.6856 -73.556602 2.0258999 0.068899997 0.2429 -0.96759999
24.7395 -73.4394 2.0297 -0.12989999 -0.93489999 -0.3303
168.8454 -120.158 0.58350003 -0.2703 -0.61930001 -0.73720002
138.23421 -102.922 2.9955001 0.32100001 0.59490001 0.73689997
-77.583199 -68.063202 0.0999 -0.107 -0.2568 0.9605
63.4781 -78.828796 5.6465001 -0.044500001 -0.2466 0.96810001
63.534801 -78.607903 5.6476002 0.1032 0.38370001 0.91769999
5.5527 -68.269302 2.0218 0.1078 0.67369998 -0.73119998
5.3209 -61.8853 -25.2349 -0.089599997 -0.98049998 -0.1749
42.6824 -74.784302 1.7821 0.1609 0.98100001 0.1085
82.863998 -81.712303 3.4723001 0.2186 0.92220002 -0.31900001
138.1479 -103.0706 0.82249999 0.19850001 0.51370001 -0.83469999
110.0711 -92.602798 2.9984 -0.3378 -0.8096 -0.48010001
92.005798 -84.995201 5.1601 0.070600003 0.2313 0.97030002
110.3136 -91.998703 4.9236002 -0.1314 -0.38299999 0.91430002
110.7028 -90.9599 4.9285998 0.16429999 0.3637 0.91689998
24.8599 -72.695503 1.5438 -0.041499998 -0.54250002 -0.83899999
155.3889 -112.8359 0.34509999 -0.1856 -0.352 -0.9174
24.971201 -72.026802 1.5477999 0.091700003 0.39700001 -0.91320002
155.88741 -111.8448 0.34940001 0.17550001 0.36590001 -0.91399997
63.304401 -79.4319 3.2351 -0.16680001 -0.84329998 -0.51090002
156.19479 -111.2692 2.2737999 0.398 0.78250003 0.47889999
119.5775 -95.685303 4.6880999 -0.054900002 -0.24600001 0.9677
-82.705704 -68.508598 -0.38479999 0.0515 -0.68040001 0.73100001
101.4883 -87.343002 4.9204998 0.17739999 0.51450002 0.83890003
-82.738197 -67.971703 -0.38080001 -0.22220001 0.648 0.72850001
-81.203697 -67.551102 -0.3849 -0.20919999 0.85360003 0.47710001
44.0439 -76.607803 3.2335999 -0.097900003 -0.78060001 -0.61729997
-14.1084 -66.8592 1.5477999 0.0579 0.98570001 -0.1585
42.2812 -73.192497 30.739401 -0.1332 -0.9853 0.1065
82.223 -83.867798 4.9253998 -0.1496 -0.6656 0.73110002
-42.206799 -60.849998 40.861 -0.3098 0.098700002 -0.94559997
44.4202 -74.890503 5.1658001 0.0999 0.66670001 0.73860002
110.8349 -90.601799 4.6817002 0.2624 0.62159997 0.73809999
63.200802 -79.889603 4.9214001 -0.18000001 -0.92409998 0.3371
-4.4889002 -69.616997 1.3079 -0.0208 -0.67220002 -0.74010003
-79.518204 -67.184898 -0.62589997 -0.2059 0.92750001 -0.31189999
-24.056601 -67.958603 3.2368 -0.0196 -0.088100001 0.99589998
-96.562599 -72.1558 -0.86949998 -0.25029999 0.65130001 -0.71630001
-94.257301 -71.527802 -0.86699998 0.2992 -0.8973 -0.3247
-94.276199 -71.319901 -0.86540002 -0.32640001 0.94520003 0.0088
-92.618698 -70.747398 -0.8689 -0.31810001 0.93309999 0.16779999
-91.400902 -70.522903 -0.86330003 0.29629999 -0.74860001 0.59310001
-91.4142 -70.372597 -0.86210001 -0.25560001 0.90960002 0.32749999
-86.312599 -69.2304 -0.86870003 0.1248 -0.87470001 0.4684
-86.339203 -68.859802 -0.86589998 -0.25960001 0.96569997 0.0082999999
-71.354698 -68.747704 -0.86629999 0.030099999 -0.99949998 -0.0077999998
-4.4521999 -69.236603 1.0617 -0.0017 -0.39629999 -0.9181
15.3771 -69.454903 2.9909 0.1018 0.9799 0.17129999
120.1046 -94.355103 4.2041001 0.34419999 0.708 0.61659998
-4.3410001 -68.132896 1.069 0.050299998 0.24860001 -0.9673
-14.2766 -69.103798 2.9974999 -0.056899998 -0.79159999 0.60839999
-75.572403 -66.604301 -0.86519998 -0.1556 0.93610001 -0.31529999
-4.2638998 -67.490196 2.9951999 0.051800001 0.94239998 0.33050001
61.543701 -73.127098 49.791 0.1303 0.991 0.029300001
-90.477097 -70.259003 -1.1039 0.2929 -0.94150001 -0.16670001
100.8028 -89.283203 4.2027001 -0.29300001 -0.89429998 0.33829999
-90.496201 -70.040802 -1.1022 -0.32620001 0.9332 -0.15109999
-89.741096 -70.021698 -1.1057 0.3073 -0.90170002 0.30399999
-89.096397 -69.815102 -1.1089 0.2956 -0.84109998 0.45300001
-89.759499 -69.8078 -1.1041 -0.32449999 0.9314 0.16509999
-89.116798 -69.568604 -1.107 -0.31099999 0.82770002 0.46709999
-87.4076 -69.352898 -1.1076 0.2254 -0.64420003 -0.73089999
-87.420898 -69.177498 -1.1063 -0.090400003 0.67809999 -0.72939998
-14.2749 -68.908897 0.8265 -0.0309 -0.78469998 -0.61900002
-71.385696 -67.849503 0.824 -0.041499998 0.0744 0.9964
-71.414101 -67.211502 0.82880002 -0.059900001 0.071999997 0.99559999
82.211304 -83.853302 4.2017999 -0.2274 -0.91600001 -0.33050001
-23.9774 -66.5289 2.7560999 -0.001 0.78460002 0.61989999
14.9852 -72.147499 2.5193999 -0.1017 -0.98009998 -0.1705
-34.3829 -70.4189 0.58789998 -0.123 -0.9824 0.14049999
163.7908 -118.0238 1.0764 -0.4271 -0.84259999 -0.32820001
91.550003 -86.3377 3.9628999 -0.25839999 -0.81959999 -0.51130003
54.236599 -75.638298 4.2063999 0.16599999 0.93349999 -0.3179
34.433399 -74.975899 4.2045002 -0.1434 -0.66659999 0.73150003
137.34219 -104.8702 1.3133 -0.39629999 -0.78280002 -0.4797
138.0795 -103.2707 3.2426 0.21070001 0.3416 0.91589999
-75.520699 -67.688904 -1.5862 -0.1154 -0.079400003 -0.99010003
-75.529701 -67.513901 -1.5848 -0.077699997 -0.079300001 -0.99379998
53.6115 -78.307602 3.9637001 -0.14820001 -0.97430003 -0.1698
-33.912998 -67.481003 0.34819999 -0.0151 -0.54119998 -0.84069997
128.6713 -99.807297 1.3183 -0.16249999 -0.19230001 -0.96780002
61.922199 -75.067802 -9.7811003 -0.066699997 -0.99430001 0.082699999
91.567902 -79.632698 31.224899 0.086599998 0.003 -0.99620003
170.66161 -120.8276 0.59820002 0.068000004 -0.61220002 -0.7877
155.31281 -113.0322 2.7653 -0.24079999 -0.49430001 0.83530003
23.347799 -70.025902 15.7817 0.052299999 0.99769998 -0.0425
-77.628197 -67.210098 0.1063 -0.1355 0.38690001 0.91210002
-23.861601 -60.869099 -25.2241 0.1612 0.86379999 0.47729999
-61.167801 -63.6814 13.8525 -0.1499 -0.98869997 -0.0040000002
155.21941 -113.1776 0.59240001 -0.30840001 -0.59960002 -0.73839998
24.749201 -73.4515 3.7262001 -0.1283 -0.53729999 0.83359998
156.0598 -111.5067 0.5995 0.3003 0.61059999 -0.73280001
82.334702 -83.505402 5.1760001 -0.082199998 -0.3994 0.9131
110.9232 -90.328499 3.0097001 0.31569999 0.82380003 -0.4709
-33.5144 -62.576401 44.972599 -0.1305 -0.91350001 -0.38550001
137.78979 -103.8617 0.5988 -0.077399999 -0.050999999 -0.9957
137.88341 -103.6537 0.59979999 -0.0068000001 0.098099999 -0.99519998
14.0899 -70.284698 1.5509 0.1208 0.98589998 0.1159
119.8289 -95.055801 4.6912999 0.142 0.2031 0.96880001
-4.4583998 -69.4533 3.4812 -0.058899999 -0.40310001 0.91320002
146.6371 -108.3113 0.35370001 -0.1209 -0.2097 -0.97030002
146.9286 -107.6993 0.35620001 0.092299998 0.2324 -0.96820003
-18.285299 -57.646301 -47.174 0.084100001 0.96609998 0.2439
44.5453 -74.2314 3.2477 0.1288 0.67009997 -0.73100001
82.7649 -82.077698 4.9348998 0.1699 0.6523 0.73869997
170.4698 -121.1983 1.8002 -0.1011 -0.94929999 0.2976
-85.242897 -68.950302 -0.61210001 0.093500003 -0.78850001 0.60790002
63.629002 -78.162399 3.0091 0.0017 0.091300003 -0.99580002
-14.2452 -68.726196 3.2486999 -0.048599999 -0.55080003 0.83319998
63.803902 -77.537003 4.9345999 0.21879999 0.96090001 0.17
-24.0177 -67.281799 3.2414999 -0.036800001 0.2402 0.97000003
-96.550903 -72.281799 -0.86000001 0.1514 -0.52579999 -0.83700001
82.700302 -82.234398 2.7616999 0.1177 0.54009998 -0.83329999
-96.563797 -72.142403 -0.85890001 -0.1167 0.242 -0.96319997
71.283096 -67.316498 -24.2542 0.1329 0.9752 0.1771
-92.5998 -70.955902 -0.8531 0.29910001 -0.83819997 0.45609999
-92.618202 -70.7519 -0.85159999 -0.27090001 0.83770001 0.47420001
-91.4021 -70.508499 -0.85189998 0.148 -0.076700002 0.986
101.0413 -88.562103 2.5243001 -0.1962 -0.54460001 -0.8154
-91.412903 -70.3871 -0.85089999 -0.0506 0.39129999 0.91890001
-87.404602 -69.375603 -0.85479999 0.084700003 -0.78920001 0.60829997
-87.421097 -69.158501 -0.85320002 -0.27270001 0.74760002 0.60549998
-84.0765 -68.743103 -0.852 0.1417 -0.97500002 -0.171
-81.165398 -68.2621 -0.85769999 0.0229 -0.5399 -0.84140003
-81.1996 -67.666 -0.85329998 -0.1227 0.2464 -0.96139997
91.469101 -86.601097 4.4577999 -0.0117 0.1969 -0.98030001
65.481598 -74.744102 47.872101 0.55000001 -0.1198 -0.82660002
110.453 -91.567299 2.2844999 -0.047499999 -0.064199999 -0.99680001
-14.1292 -67.239304 3.0098 0.042100001 0.8757 0.48100001
110.533 -91.353699 2.2855999 0.0134 0.089500003 -0.99589998
34.575401 -74.241798 4.6993999 -0.064300001 -0.077799998 0.99489999
72.691299 -81.8992 4.4534001 -0.1464 -0.8646 -0.48069999
-88.373497 -69.617798 -1.0968 0.25150001 -0.91060001 -0.32800001
-87.405899 -69.373901 -1.0915 0.17299999 -0.52410001 -0.83389997
-88.395798 -69.335999 -1.0946 -0.26519999 0.96420002 0.0082
-63.439098 -68.286003 -1.0948 0.041900001 -0.87480003 -0.48269999
-79.481796 -67.896004 -1.0987 0.0024999999 -0.3946 -0.9188
101.6664 -86.818199 4.2153001 0.2992 0.89569998 0.32879999
-79.497398 -67.611298 -1.0966001 -0.13689999 0.40040001 -0.90609998
15.3785 -69.434502 2.7637 0.14229999 0.93709999 -0.31869999
73.094299 -76.401299 16.2729 0.127 0.98940003 -0.070100002
-78.6278 -66.2612 12.6508 -0.1542 0.042100001 -0.98710001
-33.937099 -68.234703 0.83350003 -0.043400001 -0.94270003 -0.33090001
-53.595501 -68.130798 0.83710003 -0.0052999998 -0.9483 0.31729999
-14.1559 -67.403198 0.83639997 0.0535 0.67979997 -0.73150003
128.3808 -100.5017 1.8056 -0.36919999 -0.69590002 -0.61589998
44.266998 -75.526001 2.5209 0.0557 0.078599997 -0.99529999
44.313999 -75.302902 2.5223999 -0.0217 -0.24150001 -0.9702
34.827599 -72.822403 2.5209 0.1432 0.77939999 -0.61000001
52.4757 -72.737999 -9.2968998 0.023800001 0.91589999 0.40079999
61.4389 -76.846497 16.0359 0.2193 0.96689999 -0.1304
-33.927299 -68.246696 2.5299001 -0.041000001 -0.55089998 0.83359998
165.01421 -115.7161 1.0857 0.4497 0.83340001 -0.32120001
52.037899 -74.204903 16.0334 0.1077 0.98540002 -0.1321
72.764397 -81.627701 3.9714999 -0.13160001 -0.77969998 -0.61220002
34.837299 -72.834503 4.2175002 0.1048 0.77890003 0.61830002
138.3392 -102.6555 1.3233 0.35609999 0.80589998 -0.47299999
-71.356796 -68.552696 0.3567 -0.0141 -0.55339998 0.83279997
-63.463299 -67.532204 -1.5798 0.039900001 -0.3935 -0.91850001
-75.484299 -68.194801 0.3558 -0.1036 -0.41119999 0.90570003
-63.4828 -66.854599 -1.575 -0.018999999 0.2516 -0.9677
32.593201 -70.939903 55.115299 -0.1665 -0.98460001 0.0535
-33.888599 -66.803596 0.3527 0.057300001 0.4068 -0.91170001
128.9362 -99.183296 1.3211 0.043900002 0.2527 -0.9666
54.230999 -75.655197 3.9790001 0.16869999 0.98559999 0.0066
-14.8891 -65.939102 -11.466 0.1028 0.94989997 0.29519999
25.0973 -71.289803 2.0429001 0.1531 0.86860001 -0.47130001
155.99139 -111.6828 2.7711 0.25080001 0.4831 0.83890003
-75.472603 -68.449699 0.1173 -0.096100003 -0.68260002 0.7245
-43.769501 -67.990196 0.119 0.0262 -0.87580001 -0.48199999
146.3172 -108.9925 0.84119999 -0.35179999 -0.70349997 -0.61760002
-52.9636 -61.235298 -27.149099 -0.0735 0.0288 -0.99690002
147.2542 -107.025 0.84979999 0.33360001 0.71780002 -0.61110002
-44.906799 -59.8395 -27.149099 0.1145 -0.9813 0.15459999
-36.849998 -58.4436 -27.149099 -0.1214 -0.90149999 -0.41549999
169.00459 -119.8613 0.3651 -0.1426 -0.375 -0.91600001
25.107 -71.301804 3.7395 0.083400004 0.66829997 0.7392
63.317699 -79.448303 5.4226999 -0.037700001 -0.2491 0.96780002
-81.168198 -68.146004 -0.1287 -0.0066999998 -0.55269998 0.83340001
-81.1884 -67.792503 -0.1261 -0.1638 0.77109998 0.61519998
146.3269 -109.0046 2.5376999 -0.3337 -0.71799999 0.61080003
82.656097 -82.443604 5.1816001 0.1074 0.3827 0.91759998
168.7361 -120.385 2.0599 -0.35789999 -0.80610001 0.47130001
-75.4646 -68.655403 -0.3612 -0.081200004 -0.98439997 0.15629999
63.724899 -77.795601 3.2598 0.1288 0.67070001 -0.73049998
-43.7616 -67.236198 -0.36629999 0.065099999 -0.39469999 -0.91649997
-61.629902 -65.732903 13.3898 0.0396 0.99339998 -0.1075
-43.751801 -66.558403 -0.36160001 0.055500001 0.25279999 -0.9659
-53.599201 -67.035599 1.5641 -0.055799998 -0.25189999 0.96609998
-4.3070002 -67.9505 3.4912 0.0115 0.54220003 0.84020001
-53.6008 -66.807602 1.5656 -0.064800002 0.39570001 0.91610003
155.06129 -113.5191 2.0555 -0.42309999 -0.84719998 0.32120001
-85.263199 -68.651901 -0.6099 -0.24609999 0.7536 0.60949999
-81.156097 -68.400002 -0.60699999 0.073399998 -0.94069999 -0.3312
-14.3082 -69.3703 1.3221999 -0.0296 -0.78439999 -0.6196
-81.205902 -67.531799 -0.60049999 -0.21879999 0.97570002 0.0092000002
